ply
format ascii 1.0
element vertex 1223
property float x
property float y
property float z
property uchar red
property uchar green
property uchar blue
property uchar alpha
element face 0
property list uchar int vertex_indices
end_header
-106.34651 -25.601944 1134.0 27 14 18 1
-99.8184 -25.443907 1127.0 22 14 16 1
-94.28014 -25.534214 1131.0 25 16 22 1
-88.6221 -25.601944 1134.0 23 14 3 1
-82.49512 -25.534214 1131.0 18 9 6 1
-76.3317 -25.443907 1127.0 17 9 17 1
-70.71013 -25.534214 1131.0 18 9 17 1
-64.588356 -25.443907 1127.0 17 10 27 1
-58.9251 -25.534214 1131.0 19 9 12 1
-53.032566 -25.534214 1131.0 16 9 25 1
-46.97335 -25.443907 1127.0 18 9 18 1
-41.247578 -25.534214 1131.0 24 11 24 1
-35.448826 -25.601944 1134.0 20 10 36 1
-29.540699 -25.601944 1134.0 20 14 7 1
-23.632538 -25.601944 1134.0 20 14 16 1
-17.786932 -25.69225 1138.0 26 18 16 1
-11.857967 -25.69225 1138.0 29 21 13 1
-5.9289646 -25.69225 1138.0 38 31 20 1
0.0 -25.69225 1138.0 44 28 27 1
5.9289646 -25.69225 1138.0 49 39 43 1
11.858005 -25.69225 1138.0 54 43 71 1
17.78697 -25.69225 1138.0 63 55 45 1
23.715935 -25.69225 1138.0 69 60 48 1
29.540699 -25.601944 1134.0 72 59 58 1
35.448826 -25.601944 1134.0 70 58 68 1
41.357025 -25.601944 1134.0 72 59 55 1
47.26515 -25.601944 1134.0 77 66 61 1
53.173275 -25.601944 1134.0 82 65 76 1
59.2898 -25.69225 1138.0 89 77 77 1
65.218765 -25.69225 1138.0 93 82 84 1
70.89772 -25.601944 1134.0 81 57 76 1
76.80585 -25.601944 1134.0 81 63 63 1
82.713974 -25.601944 1134.0 100 80 76 1
88.6221 -25.601944 1134.0 94 79 84 1
94.53022 -25.601944 1134.0 102 82 96 1
100.43842 -25.601944 1134.0 123 110 113 1
106.721664 -25.69225 1138.0 127 116 92 1
112.650635 -25.69225 1138.0 106 87 106 1
119.4132 -25.872864 1146.0 118 106 121 1
126.14971 -26.030901 1153.0 131 120 127 1
132.61539 -26.121206 1157.0 136 127 114 1
139.12267 -26.211514 1161.0 183 127 151 1
-307.6609 -29.10309 1197.0 135 142 148 1
-300.41727 -29.005838 1193.0 95 79 82 1
-294.20172 -29.005838 1193.0 87 69 76 1
-287.02063 -28.908585 1189.0 73 54 69 1
-278.93646 -28.714077 1181.0 74 54 70 1
-271.85953 -28.616823 1177.0 85 68 74 1
-265.72736 -28.616823 1177.0 86 68 85 1
-258.71295 -28.519571 1173.0 81 63 59 1
-252.60162 -28.519571 1173.0 78 63 54 1
-247.33086 -28.616823 1177.0 79 57 55 1
-241.19867 -28.616823 1177.0 80 57 61 1
-235.86537 -28.714077 1181.0 109 82 91 1
-228.1563 -28.519571 1173.0 121 86 72 1
-220.53061 -28.325064 1165.0 102 77 53 1
-213.72462 -28.22781 1161.0 60 34 54 1
-207.6758 -28.22781 1161.0 50 24 44 1
-201.627 -28.22781 1161.0 39 30 42 1
-194.90434 -28.130556 1157.0 44 27 51 1
-188.22339 -28.033304 1153.0 55 22 65 1
-182.21628 -28.033304 1153.0 93 69 75 1
-175.75064 -27.960363 1150.0 103 89 68 1
-169.1687 -27.86311 1146.0 68 49 61 1
-162.62839 -27.765856 1142.0 54 16 39 1
-156.12979 -27.668604 1138.0 41 15 42 1
-150.20084 -27.668604 1138.0 27 17 35 1
-144.77893 -27.765856 1142.0 29 11 32 1
-138.82913 -27.765856 1142.0 24 10 19 1
-132.87929 -27.765856 1142.0 34 13 24 1
-126.48489 -27.668604 1138.0 36 21 19 1
-120.55593 -27.668604 1138.0 39 23 26 1
-114.62693 -27.668604 1138.0 33 16 24 1
-108.315895 -27.57135 1134.0 30 15 19 1
-102.13682 -27.49841 1131.0 22 14 11 1
-95.90393 -27.401155 1127.0 27 17 30 1
-90.35183 -27.49841 1131.0 26 14 10 1
-84.4593 -27.49841 1131.0 23 10 5 1
-78.28893 -27.401155 1127.0 19 11 22 1
-72.41724 -27.401155 1127.0 22 8 13 1
-66.545586 -27.401155 1127.0 17 10 19 1
-60.67393 -27.401155 1127.0 29 9 10 1
-54.80224 -27.401155 1127.0 16 7 23 1
-48.930584 -27.401155 1127.0 19 6 12 1
-43.211716 -27.49841 1131.0 21 10 17 1
-37.418213 -27.57135 1134.0 20 10 22 1
-31.510086 -27.57135 1134.0 19 14 6 1
-25.601925 -27.57135 1134.0 20 13 11 1
-19.763266 -27.668604 1138.0 23 17 18 1
-13.834264 -27.668604 1138.0 27 19 23 1
-7.905299 -27.668604 1138.0 35 26 15 1
-1.9763342 -27.668604 1138.0 47 30 25 1
3.9526684 -27.668604 1138.0 50 34 33 1
9.8469 -27.57135 1134.0 54 43 55 1
15.755025 -27.57135 1134.0 63 51 47 1
21.663225 -27.57135 1134.0 68 58 47 1
27.57135 -27.57135 1134.0 67 58 55 1
33.479473 -27.57135 1134.0 69 56 61 1
39.3876 -27.57135 1134.0 63 59 71 1
45.295723 -27.57135 1134.0 75 63 61 1
51.203922 -27.57135 1134.0 80 62 73 1
57.313503 -27.668604 1138.0 87 73 74 1
63.020172 -27.57135 1134.0 91 80 77 1
68.9283 -27.57135 1134.0 83 78 73 1
74.836426 -27.57135 1134.0 79 62 66 1
80.74462 -27.57135 1134.0 96 79 79 1
86.65275 -27.57135 1134.0 95 76 78 1
92.560875 -27.57135 1134.0 96 76 89 1
98.469 -27.57135 1134.0 121 117 104 1
104.37712 -27.57135 1134.0 130 101 103 1
110.67434 -27.668604 1138.0 102 91 95 1
117.01315 -27.765856 1142.0 113 92 103 1
123.82435 -27.960363 1150.0 126 120 115 1
130.15448 -28.033304 1153.0 135 123 123 1
137.10634 -28.22781 1161.0 143 135 157 1
-309.7397 -31.181849 1197.0 172 177 161 1
-302.48914 -31.07765 1193.0 84 58 82 1
-296.2736 -31.07765 1193.0 91 78 76 1
-289.08554 -30.97345 1189.0 79 56 74 1
-281.93912 -30.86925 1185.0 71 52 66 1
-273.9036 -30.660849 1177.0 80 61 77 1
-267.77142 -30.660849 1177.0 86 65 74 1
-261.63922 -30.660849 1177.0 80 64 56 1
-254.63875 -30.55665 1173.0 71 53 52 1
-248.52739 -30.55665 1173.0 71 57 55 1
-243.24274 -30.660849 1177.0 78 48 58 1
-237.9164 -30.765049 1181.0 99 78 88 1
-229.40843 -30.45245 1169.0 120 90 91 1
-222.55383 -30.34825 1165.0 78 69 21 1
-215.74086 -30.24405 1161.0 53 42 32 1
-209.69206 -30.24405 1161.0 44 21 46 1
-203.64328 -30.24405 1161.0 45 28 27 1
-196.91367 -30.139849 1157.0 47 23 44 1
-190.22578 -30.03565 1153.0 68 29 74 1
-184.21863 -30.03565 1153.0 91 73 59 1
-177.74782 -29.957499 1150.0 88 84 72 1
-171.15892 -29.8533 1146.0 63 55 53 1
-164.61166 -29.7491 1142.0 50 13 45 1
-158.10612 -29.6449 1138.0 40 16 36 1
-152.17712 -29.6449 1138.0 28 17 33 1
-146.76222 -29.7491 1142.0 32 13 41 1
-140.81241 -29.7491 1142.0 36 20 23 1
-134.86256 -29.7491 1142.0 38 22 50 1
-128.46123 -29.6449 1138.0 43 30 25 1
-122.10153 -29.540699 1134.0 42 25 29 1
-116.603264 -29.6449 1138.0 39 19 29 1
-110.285286 -29.540699 1134.0 31 17 16 1
-104.10099 -29.46255 1131.0 26 17 18 1
-97.86117 -29.358349 1127.0 23 14 25 1
-92.31596 -29.46255 1131.0 33 22 34 1
-86.42347 -29.46255 1131.0 21 13 8 1
-80.24616 -29.358349 1127.0 20 14 15 1
-74.1105 -29.25415 1123.0 17 10 14 1
-68.25968 -29.25415 1123.0 19 11 5 1
-62.631123 -29.358349 1127.0 19 9 8 1
-56.759468 -29.358349 1127.0 14 12 7 1
-50.887814 -29.358349 1127.0 18 8 8 1
-45.175896 -29.46255 1131.0 16 11 10 1
-39.3876 -29.540699 1134.0 19 10 9 1
-33.479435 -29.540699 1134.0 15 12 14 1
-27.571312 -29.540699 1134.0 20 14 6 1
-21.739601 -29.6449 1138.0 20 12 18 1
-15.755025 -29.540699 1134.0 25 17 43 1
-9.8469 -29.540699 1134.0 33 28 13 1
-3.9526308 -29.6449 1138.0 43 31 21 1
1.9694251 -29.540699 1134.0 49 34 33 1
7.87755 -29.540699 1134.0 53 41 45 1
13.749205 -29.46255 1131.0 59 43 50 1
19.641699 -29.46255 1131.0 63 53 50 1
25.601925 -29.540699 1134.0 64 53 53 1
31.510124 -29.540699 1134.0 64 54 60 1
37.41825 -29.540699 1134.0 61 54 64 1
43.326374 -29.540699 1134.0 71 58 84 1
49.104248 -29.46255 1131.0 78 65 65 1
55.142624 -29.540699 1134.0 83 68 67 1
61.050823 -29.540699 1134.0 88 76 76 1
66.95895 -29.540699 1134.0 84 77 54 1
72.417274 -29.358349 1127.0 61 49 71 1
78.566795 -29.46255 1131.0 91 79 100 1
84.68333 -29.540699 1134.0 92 69 76 1
90.59152 -29.540699 1134.0 95 76 78 1
96.49965 -29.540699 1134.0 125 116 102 1
102.407776 -29.540699 1134.0 118 103 101 1
108.315895 -29.540699 1134.0 109 91 92 1
114.62693 -29.6449 1138.0 106 91 95 1
120.97971 -29.7491 1142.0 119 114 98 1
127.818695 -29.957499 1150.0 127 112 125 1
134.15926 -30.03565 1153.0 131 119 122 1
140.65263 -30.139849 1157.0 138 131 126 1
-305.5821 -33.260666 1197.0 69 75 90 1
-298.34543 -33.14952 1193.0 89 81 77 1
-292.1299 -33.14952 1193.0 87 66 79 1
-284.95572 -33.038372 1189.0 74 47 43 1
-275.94763 -32.704933 1177.0 78 57 68 1
-269.81546 -32.704933 1177.0 84 65 64 1
-263.6833 -32.704933 1177.0 80 63 61 1
-256.67587 -32.59379 1173.0 71 56 42 1
-250.56451 -32.59379 1173.0 71 57 49 1
-244.4532 -32.59379 1173.0 67 48 31 1
-239.1546 -32.704933 1177.0 95 74 76 1
-230.64668 -32.371494 1165.0 115 97 107 1
-224.57706 -32.371494 1165.0 54 37 53 1
-217.75714 -32.260345 1161.0 40 9 6 1
-211.70834 -32.260345 1161.0 42 19 44 1
-205.65952 -32.260345 1161.0 38 16 30 1
-198.923 -32.1492 1157.0 53 30 45 1
-192.22816 -32.03805 1153.0 75 56 61 1
-186.22101 -32.03805 1153.0 111 83 82 1
-179.745 -31.954693 1150.0 80 68 77 1
-173.14911 -31.843546 1146.0 47 26 49 1
-167.17847 -31.843546 1146.0 43 12 38 1
-160.08246 -31.621252 1138.0 35 16 32 1
-154.15346 -31.621252 1138.0 33 18 34 1
-148.2245 -31.621252 1138.0 36 14 30 1
-142.2955 -31.621252 1138.0 39 17 39 1
-136.84586 -31.732399 1142.0 47 31 36 1
-130.43756 -31.621252 1138.0 51 38 30 1
-124.07092 -31.510105 1134.0 47 32 28 1
-118.162796 -31.510105 1134.0 43 21 26 1
-112.6506 -31.621252 1138.0 37 17 19 1
-106.34651 -31.510105 1134.0 28 19 16 1
-100.172676 -31.426746 1131.0 19 13 14 1
-94.28014 -31.426746 1131.0 32 22 37 1
-88.38765 -31.426746 1131.0 17 15 11 1
-82.203354 -31.3156 1127.0 19 12 4 1
-76.06078 -31.204453 1123.0 17 13 12 1
-70.20997 -31.204453 1123.0 18 9 10 1
-64.359116 -31.204453 1123.0 13 12 9 1
-58.5083 -31.204453 1123.0 15 12 5 1
-52.845005 -31.3156 1127.0 20 8 8 1
-46.97335 -31.3156 1127.0 16 11 13 1
-41.247578 -31.426746 1131.0 14 9 17 1
-35.448826 -31.510105 1134.0 14 14 16 1
-29.540699 -31.510105 1134.0 21 14 7 1
-23.632538 -31.510105 1134.0 21 14 16 1
-17.724413 -31.510105 1134.0 26 18 27 1
-11.816287 -31.510105 1134.0 27 21 13 1
-5.908125 -31.510105 1134.0 42 31 18 1
0.0 -31.510105 1134.0 48 34 25 1
5.908125 -31.510105 1134.0 51 41 28 1
11.785065 -31.426746 1131.0 57 44 37 1
17.61504 -31.3156 1127.0 60 49 42 1
23.632574 -31.510105 1134.0 60 51 49 1
29.540699 -31.510105 1134.0 60 51 53 1
35.448826 -31.510105 1134.0 63 54 42 1
41.357025 -31.510105 1134.0 68 55 72 1
47.14011 -31.426746 1131.0 75 62 49 1
53.173275 -31.510105 1134.0 79 64 64 1
59.081398 -31.510105 1134.0 85 67 69 1
64.8176 -31.426746 1131.0 86 76 60 1
70.71017 -31.426746 1131.0 63 50 49 1
76.60266 -31.426746 1131.0 92 76 76 1
82.713974 -31.510105 1134.0 89 74 74 1
88.38765 -31.426746 1131.0 91 71 84 1
94.28014 -31.426746 1131.0 116 111 78 1
100.43842 -31.510105 1134.0 119 95 89 1
106.06521 -31.426746 1131.0 102 91 98 1
112.25467 -31.510105 1134.0 105 89 90 1
118.5796 -31.621252 1138.0 114 95 91 1
125.38384 -31.843546 1146.0 119 106 110 1
131.81305 -31.954693 1150.0 127 117 121 1
138.16402 -32.03805 1153.0 136 121 126 1
-307.6609 -35.339485 1197.0 110 85 56 1
-299.41 -35.1033 1189.0 86 74 82 1
-294.20172 -35.22139 1193.0 89 78 104 1
-287.02063 -35.1033 1189.0 78 55 44 1
-278.93646 -34.86711 1181.0 73 53 67 1
-271.85953 -34.749016 1177.0 81 64 58 1
-265.72736 -34.749016 1177.0 83 62 62 1
-258.71295 -34.630924 1173.0 73 55 39 1
-251.74023 -34.51283 1169.0 69 54 42 1
-245.64977 -34.51283 1169.0 68 54 30 1
-239.55925 -34.51283 1169.0 92 73 80 1
-232.6699 -34.394737 1165.0 107 93 82 1
-225.82222 -34.27664 1161.0 58 33 74 1
-219.77342 -34.27664 1161.0 38 17 32 1
-213.72462 -34.27664 1161.0 39 18 35 1
-207.6758 -34.27664 1161.0 30 12 42 1
-200.93233 -34.15855 1157.0 60 25 47 1
-194.90434 -34.15855 1157.0 84 53 57 1
-187.73366 -33.951885 1150.0 89 83 107 1
-181.74217 -33.951885 1150.0 70 70 68 1
-175.13934 -33.833794 1146.0 48 20 56 1
-169.1687 -33.833794 1146.0 41 17 35 1
-162.62839 -33.7157 1142.0 36 15 22 1
-156.12979 -33.597607 1138.0 37 17 29 1
-150.20084 -33.597607 1138.0 41 16 6 1
-144.77893 -33.7157 1142.0 50 23 45 1
-138.82913 -33.7157 1142.0 54 41 39 1
-132.41386 -33.597607 1138.0 57 42 42 1
-126.04031 -33.47951 1134.0 53 42 25 1
-120.13219 -33.47951 1134.0 46 36 23 1
-114.22402 -33.47951 1134.0 40 24 18 1
-108.315895 -33.47951 1134.0 32 22 13 1
-102.13682 -33.39094 1131.0 25 18 2 1
-96.24432 -33.39094 1131.0 25 22 21 1
-90.35183 -33.39094 1131.0 26 16 14 1
-84.16058 -33.27285 1127.0 20 17 4 1
-77.802666 -33.066185 1120.0 19 15 1 1
-71.967445 -33.066185 1120.0 17 10 10 1
-66.132256 -33.066185 1120.0 23 10 14 1
-60.458584 -33.154755 1123.0 20 13 11 1
-54.60773 -33.154755 1123.0 15 8 10 1
-48.930584 -33.27285 1127.0 19 9 10 1
-43.05889 -33.27285 1127.0 15 8 41 1
-37.418213 -33.47951 1134.0 17 12 9 1
-31.510086 -33.47951 1134.0 18 11 3 1
-25.534195 -33.39094 1131.0 22 14 15 1
-19.6938 -33.47951 1134.0 24 18 16 1
-13.785637 -33.47951 1134.0 28 24 17 1
-7.8775125 -33.47951 1134.0 40 29 18 1
-1.9693875 -33.47951 1134.0 46 33 20 1
3.928355 -33.39094 1131.0 51 40 10 1
9.786117 -33.27285 1127.0 55 42 23 1
15.602199 -33.154755 1123.0 58 44 34 1
21.605915 -33.39094 1131.0 58 45 43 1
27.57135 -33.47951 1134.0 58 51 49 1
33.479473 -33.47951 1134.0 63 54 40 1
39.3876 -33.47951 1134.0 67 51 65 1
45.175896 -33.39094 1131.0 75 58 53 1
51.068462 -33.39094 1131.0 75 63 59 1
56.96096 -33.39094 1131.0 82 64 61 1
62.853455 -33.39094 1131.0 84 70 61 1
68.25968 -33.154755 1123.0 76 62 37 1
74.1105 -33.154755 1123.0 75 74 62 1
80.53101 -33.39094 1131.0 89 77 72 1
86.42351 -33.39094 1131.0 92 73 82 1
92.316 -33.39094 1131.0 105 87 80 1
98.208496 -33.39094 1131.0 107 98 55 1
104.10099 -33.39094 1131.0 94 88 98 1
109.99356 -33.39094 1131.0 101 89 87 1
116.19345 -33.47951 1134.0 104 90 93 1
122.532265 -33.597607 1138.0 111 95 107 1
129.81583 -33.951885 1150.0 123 111 108 1
136.16159 -34.040455 1153.0 131 116 130 1
142.1688 -34.040455 1153.0 143 115 107 1
-311.0335 -37.574543 1202.0 135 120 113 1
-301.4749 -37.168163 1189.0 80 71 84 1
-295.2802 -37.168163 1189.0 86 75 82 1
-289.08554 -37.168163 1189.0 87 68 62 1
-281.93912 -37.04312 1185.0 67 54 56 1
-273.9036 -36.79304 1177.0 78 62 60 1
-267.77142 -36.79304 1177.0 88 61 57 1
-261.63922 -36.79304 1177.0 74 55 49 1
-253.77042 -36.54296 1169.0 66 50 33 1
-247.6799 -36.54296 1169.0 76 50 62 1
-241.58943 -36.54296 1169.0 91 73 64 1
-233.88733 -36.29288 1161.0 102 91 53 1
-227.83849 -36.29288 1161.0 21 26 59 1
-221.7897 -36.29288 1161.0 39 14 50 1
-215.74086 -36.29288 1161.0 30 20 26 1
-209.69206 -36.29288 1161.0 37 11 53 1
-202.94167 -36.167843 1157.0 59 42 59 1
-196.91367 -36.167843 1157.0 97 83 76 1
-189.07089 -35.823982 1146.0 93 66 50 1
-183.10022 -35.823982 1146.0 53 39 70 1
-177.12956 -35.823982 1146.0 42 20 47 1
-171.15892 -35.823982 1146.0 39 25 31 1
-164.61166 -35.69894 1142.0 38 19 20 1
-158.10612 -35.573902 1138.0 34 14 35 1
-152.17712 -35.573902 1138.0 46 18 40 1
-146.24817 -35.573902 1138.0 58 45 42 1
-140.3192 -35.573902 1138.0 64 49 46 1
-134.3902 -35.573902 1138.0 63 47 46 1
-128.0097 -35.44886 1134.0 59 46 38 1
-122.10153 -35.44886 1134.0 51 41 32 1
-116.19341 -35.44886 1134.0 42 28 28 1
-110.285286 -35.44886 1134.0 38 24 30 1
-104.10099 -35.355083 1131.0 28 20 11 1
-97.86117 -35.23004 1127.0 25 20 21 1
-92.31596 -35.355083 1131.0 26 19 20 1
-86.11782 -35.23004 1127.0 22 17 5 1
-79.96135 -35.105003 1123.0 21 14 5 1
-73.91251 -35.011223 1120.0 20 13 12 1
-68.07733 -35.011223 1120.0 35 8 14 1
-62.24211 -35.011223 1120.0 22 7 24 1
-56.406925 -35.011223 1120.0 10 10 12 1
-50.7072 -35.105003 1123.0 19 13 6 1
-44.856346 -35.105003 1123.0 15 9 21 1
-39.283398 -35.355083 1131.0 17 12 10 1
-33.479435 -35.44886 1134.0 23 10 18 1
-27.498371 -35.355083 1131.0 21 12 16 1
-21.605877 -35.355083 1131.0 21 16 22 1
-15.713345 -35.355083 1131.0 33 25 19 1
-9.820849 -35.355083 1131.0 42 27 16 1
-3.9387374 -35.44886 1134.0 44 33 31 1
1.9572681 -35.23004 1127.0 51 39 27 1
7.8011365 -35.105003 1123.0 54 43 36 1
13.651951 -35.105003 1123.0 58 42 41 1
19.572233 -35.23004 1127.0 57 43 42 1
25.443888 -35.23004 1127.0 59 46 46 1
31.426764 -35.355083 1131.0 58 48 52 1
37.31926 -35.355083 1131.0 65 49 52 1
43.058926 -35.23004 1127.0 74 56 62 1
48.930584 -35.23004 1127.0 76 61 60 1
54.996742 -35.355083 1131.0 75 62 64 1
60.673965 -35.23004 1127.0 84 68 62 1
66.30943 -35.105003 1123.0 79 67 51 1
72.16025 -35.105003 1123.0 74 46 53 1
78.28893 -35.23004 1127.0 86 76 75 1
84.16058 -35.23004 1127.0 89 73 76 1
90.35186 -35.355083 1131.0 106 109 109 1
95.90397 -35.23004 1127.0 118 74 65 1
101.77563 -35.23004 1127.0 74 60 76 1
107.64728 -35.23004 1127.0 98 87 87 1
114.22402 -35.44886 1134.0 95 87 88 1
120.55597 -35.573902 1138.0 100 91 98 1
126.92952 -35.69894 1142.0 117 110 96 1
133.81018 -35.94902 1150.0 127 112 118 1
140.65263 -36.167843 1157.0 140 124 121 1
146.68059 -36.167843 1157.0 96 93 93 1
-314.163 -39.794033 1206.0 148 153 147 1
-303.5398 -39.233086 1189.0 78 72 72 1
-296.3448 -39.1011 1185.0 83 70 74 1
-290.17096 -39.1011 1185.0 89 72 66 1
-283.99707 -39.1011 1185.0 74 57 67 1
-275.00986 -38.70514 1173.0 76 54 66 1
-268.8985 -38.70514 1173.0 80 59 49 1
-263.6833 -38.837128 1177.0 71 52 56 1
-255.80058 -38.573154 1169.0 64 47 16 1
-248.85564 -38.441166 1165.0 76 53 60 1
-242.786 -38.441166 1165.0 91 71 67 1
-236.71632 -38.441166 1165.0 77 96 66 1
-229.85477 -38.309177 1161.0 47 24 21 1
-223.80597 -38.309177 1161.0 39 18 46 1
-217.75714 -38.309177 1161.0 37 20 22 1
-211.70834 -38.309177 1161.0 57 19 55 1
-205.65952 -38.309177 1161.0 72 38 84 1
-198.923 -38.177193 1157.0 89 78 80 1
-191.06113 -37.814228 1146.0 76 67 12 1
-185.09044 -37.814228 1146.0 52 25 42 1
-179.1198 -37.814228 1146.0 41 19 40 1
-173.14911 -37.814228 1146.0 33 25 29 1
-167.17847 -37.814228 1146.0 41 22 25 1
-160.64514 -37.682243 1142.0 43 25 23 1
-154.15346 -37.550255 1138.0 57 17 58 1
-148.2245 -37.550255 1138.0 66 52 51 1
-142.2955 -37.550255 1138.0 67 57 49 1
-135.8872 -37.418266 1134.0 65 49 51 1
-129.63522 -37.31928 1131.0 61 46 47 1
-123.74269 -37.31928 1131.0 54 44 39 1
-117.8502 -37.31928 1131.0 45 36 44 1
-111.957664 -37.31928 1131.0 39 28 37 1
-106.06517 -37.31928 1131.0 34 21 25 1
-99.8184 -37.18729 1127.0 28 17 16 1
-94.28014 -37.31928 1131.0 24 16 27 1
-88.07505 -37.18729 1127.0 26 21 10 1
-81.9116 -37.055305 1123.0 21 15 9 1
-75.85759 -36.956314 1120.0 20 14 13 1
-70.02241 -36.956314 1120.0 21 11 14 1
-64.18719 -36.956314 1120.0 29 6 26 1
-58.351997 -36.956314 1120.0 23 12 21 1
-52.657448 -37.055305 1123.0 18 15 9 1
-46.806633 -37.055305 1123.0 17 13 5 1
-41.101696 -37.18729 1127.0 18 12 18 1
-35.355045 -37.31928 1131.0 20 11 44 1
-29.46255 -37.31928 1131.0 19 13 18 1
-23.570017 -37.31928 1131.0 24 14 33 1
-17.677523 -37.31928 1131.0 32 20 18 1
-11.7850275 -37.31928 1131.0 40 28 18 1
-5.908125 -37.418266 1134.0 44 34 30 1
0.0 -37.18729 1127.0 48 36 46 1
5.871655 -37.18729 1127.0 49 39 40 1
11.701704 -37.055305 1123.0 54 39 67 1
17.552519 -37.055305 1123.0 60 37 44 1
23.486694 -37.18729 1127.0 57 44 43 1
29.358349 -37.18729 1127.0 55 42 50 1
35.230003 -37.18729 1127.0 66 45 53 1
41.101734 -37.18729 1127.0 72 56 58 1
46.97339 -37.18729 1127.0 75 59 83 1
53.032604 -37.31928 1131.0 73 63 64 1
58.716698 -37.18729 1127.0 80 66 71 1
64.359116 -37.055305 1123.0 80 68 56 1
70.022446 -36.956314 1120.0 74 54 58 1
76.06082 -37.055305 1123.0 84 74 71 1
82.20339 -37.18729 1127.0 88 73 51 1
88.07505 -37.18729 1127.0 109 89 107 1
93.9467 -37.18729 1127.0 99 79 87 1
99.818436 -37.18729 1127.0 65 62 60 1
105.69009 -37.18729 1127.0 89 84 77 1
111.9577 -37.31928 1131.0 88 81 85 1
118.162796 -37.418266 1134.0 96 83 97 1
124.50856 -37.550255 1138.0 111 98 92 1
131.35457 -37.814228 1146.0 121 108 108 1
137.80453 -37.946217 1150.0 129 115 115 1
144.6713 -38.177193 1157.0 129 119 123 1
-317.30637 -42.02735 1210.0 181 175 169 1
-307.6609 -41.57582 1197.0 89 68 69 1
-297.39548 -41.020084 1181.0 79 68 74 1
-291.24243 -41.020084 1181.0 84 73 69 1
-285.08945 -41.020084 1181.0 81 64 65 1
-277.04697 -40.742218 1173.0 72 53 69 1
-270.0117 -40.603287 1169.0 76 57 56 1
-264.8243 -40.742218 1173.0 71 52 64 1
-257.83072 -40.603287 1169.0 54 47 41 1
-250.87886 -40.46435 1165.0 73 53 47 1
-243.96867 -40.32542 1161.0 93 73 66 1
-238.73955 -40.46435 1165.0 76 76 59 1
-231.87105 -40.32542 1161.0 34 21 25 1
-225.82222 -40.32542 1161.0 35 18 46 1
-219.77342 -40.32542 1161.0 40 16 43 1
-213.72462 -40.32542 1161.0 55 17 52 1
-207.6758 -40.32542 1161.0 92 75 67 1
-200.93233 -40.186485 1157.0 101 83 61 1
-193.72514 -39.94335 1150.0 61 48 58 1
-187.08067 -39.804417 1146.0 43 19 12 1
-180.47787 -39.665485 1142.0 36 26 38 1
-175.13934 -39.804417 1146.0 34 26 40 1
-169.1687 -39.804417 1146.0 41 23 33 1
-162.62839 -39.665485 1142.0 51 26 23 1
-156.12979 -39.52655 1138.0 71 55 48 1
-149.67288 -39.38762 1134.0 77 64 61 1
-144.27184 -39.52655 1138.0 73 58 55 1
-137.8566 -39.38762 1134.0 69 51 54 1
-131.59937 -39.283417 1131.0 64 49 49 1
-125.70687 -39.283417 1131.0 56 40 44 1
-119.81438 -39.283417 1131.0 48 39 39 1
-113.921844 -39.283417 1131.0 41 32 32 1
-108.02935 -39.283417 1131.0 38 21 24 1
-101.77559 -39.144485 1127.0 32 17 20 1
-95.90393 -39.144485 1127.0 23 16 25 1
-89.473076 -38.901352 1120.0 28 24 20 1
-83.86188 -39.00555 1123.0 24 17 6 1
-77.802666 -38.901352 1120.0 19 14 8 1
-71.967445 -38.901352 1120.0 21 14 12 1
-66.132256 -38.901352 1120.0 24 9 30 1
-60.297073 -38.901352 1120.0 33 13 28 1
-54.60773 -39.00555 1123.0 23 11 7 1
-48.756916 -39.00555 1123.0 14 14 7 1
-42.906063 -39.00555 1123.0 20 12 26 1
-37.31922 -39.283417 1131.0 21 14 22 1
-31.426727 -39.283417 1131.0 20 13 8 1
-25.443888 -39.144485 1127.0 25 15 29 1
-19.572233 -39.144485 1127.0 31 14 21 1
-13.700541 -39.144485 1127.0 41 26 12 1
-7.8010993 -39.00555 1123.0 44 32 15 1
-1.9572308 -39.144485 1127.0 46 34 33 1
3.9005682 -39.00555 1123.0 46 40 35 1
9.751383 -39.00555 1123.0 51 39 52 1
15.602199 -39.00555 1123.0 59 37 44 1
21.453087 -39.00555 1123.0 56 41 39 1
27.401155 -39.144485 1127.0 57 41 44 1
33.27281 -39.144485 1127.0 67 42 52 1
39.144466 -39.144485 1127.0 70 51 61 1
45.01612 -39.144485 1127.0 77 54 62 1
50.707237 -39.00555 1123.0 75 58 61 1
56.759506 -39.144485 1127.0 77 60 63 1
62.408867 -39.00555 1123.0 79 68 54 1
68.07733 -38.901352 1120.0 70 58 51 1
74.1105 -39.00555 1123.0 80 66 67 1
80.2462 -39.144485 1127.0 79 70 66 1
86.11785 -39.144485 1127.0 107 89 101 1
91.98951 -39.144485 1127.0 113 82 90 1
97.86117 -39.144485 1127.0 63 34 70 1
103.36465 -39.00555 1123.0 84 76 67 1
109.60455 -39.144485 1127.0 84 63 81 1
115.886055 -39.283417 1131.0 91 80 86 1
122.10157 -39.38762 1134.0 103 90 89 1
128.46123 -39.52655 1138.0 114 103 99 1
135.33495 -39.804417 1146.0 125 111 114 1
142.1688 -40.04755 1153.0 133 123 123 1
148.68996 -40.186485 1157.0 108 79 81 1
-320.4636 -44.274628 1214.0 177 171 188 1
-309.7397 -43.654636 1197.0 90 65 116 1
-300.4607 -43.216995 1185.0 81 69 78 1
-293.29346 -43.071117 1181.0 83 76 65 1
-287.14047 -43.071117 1181.0 85 72 63 1
-279.08405 -42.779354 1173.0 71 50 71 1
-272.04187 -42.633476 1169.0 72 52 63 1
-266.86142 -42.779354 1173.0 81 51 58 1
-261.63922 -42.925236 1177.0 58 39 53 1
-252.90208 -42.487595 1165.0 68 49 47 1
-245.98491 -42.341717 1161.0 88 71 63 1
-239.93611 -42.341717 1161.0 70 79 39 1
-233.08151 -42.195835 1157.0 37 21 44 1
-227.83849 -42.341717 1161.0 35 21 21 1
-221.02556 -42.195835 1157.0 46 14 54 1
-214.99757 -42.195835 1157.0 64 26 59 1
-208.96962 -42.195835 1157.0 88 73 34 1
-202.94167 -42.195835 1157.0 85 81 72 1
-195.72232 -41.940544 1150.0 59 38 68 1
-188.41096 -41.648785 1142.0 36 21 28 1
-182.46112 -41.648785 1142.0 38 25 18 1
-176.51132 -41.648785 1142.0 39 30 38 1
-170.56151 -41.648785 1142.0 49 25 48 1
-164.61166 -41.648785 1142.0 62 33 41 1
-157.5504 -41.357025 1134.0 74 59 41 1
-151.64223 -41.357025 1134.0 79 63 54 1
-145.73412 -41.357025 1134.0 77 57 56 1
-139.82599 -41.357025 1134.0 71 57 67 1
-133.91782 -41.357025 1134.0 66 49 50 1
-127.67105 -41.247616 1131.0 61 46 49 1
-121.77852 -41.247616 1131.0 52 43 38 1
-115.88602 -41.247616 1131.0 47 41 36 1
-109.99352 -41.247616 1131.0 39 27 2 1
-103.73282 -41.101734 1127.0 34 19 31 1
-97.253334 -40.846443 1120.0 27 17 28 1
-91.418106 -40.846443 1120.0 29 20 24 1
-85.812164 -40.955853 1123.0 26 21 10 1
-79.96135 -40.955853 1123.0 20 16 4 1
-73.91251 -40.846443 1120.0 20 14 17 1
-68.07733 -40.846443 1120.0 27 11 21 1
-62.24211 -40.846443 1120.0 42 34 30 1
-56.406925 -40.846443 1120.0 34 22 15 1
-50.57174 -40.846443 1120.0 18 14 14 1
-44.73652 -40.846443 1120.0 19 14 15 1
-39.144466 -41.101734 1127.0 22 12 16 1
-33.272774 -41.101734 1127.0 20 12 8 1
-27.303865 -40.955853 1123.0 22 14 16 1
-21.529463 -41.101734 1127.0 29 18 33 1
-15.602199 -40.955853 1123.0 36 20 11 1
-9.751383 -40.955853 1123.0 42 30 8 1
-3.900531 -40.955853 1123.0 46 36 19 1
1.9503213 -40.955853 1123.0 50 37 33 1
7.8011365 -40.955853 1123.0 49 38 48 1
13.651951 -40.955853 1123.0 54 38 47 1
19.502766 -40.955853 1123.0 57 36 39 1
25.443888 -41.101734 1127.0 57 42 36 1
31.315617 -41.101734 1127.0 60 45 50 1
37.055286 -40.955853 1123.0 65 49 57 1
42.9061 -40.955853 1123.0 73 52 55 1
48.756916 -40.955853 1123.0 71 55 57 1
54.80224 -41.101734 1127.0 76 60 58 1
60.458622 -40.955853 1123.0 79 63 55 1
66.30943 -40.955853 1123.0 71 61 54 1
71.96748 -40.846443 1120.0 77 67 53 1
78.01106 -40.955853 1123.0 86 73 78 1
84.16058 -41.101734 1127.0 101 87 80 1
89.71277 -40.955853 1123.0 100 81 90 1
95.90397 -41.101734 1127.0 56 41 72 1
101.77563 -41.101734 1127.0 79 79 66 1
107.26521 -40.955853 1123.0 83 79 74 1
113.518936 -41.101734 1127.0 80 78 77 1
120.132225 -41.357025 1134.0 98 83 85 1
126.48493 -41.502903 1138.0 110 98 99 1
132.87933 -41.648785 1142.0 119 103 104 1
139.80167 -41.940544 1150.0 125 109 120 1
146.17348 -42.049953 1153.0 135 116 107 1
152.70862 -42.195835 1157.0 95 77 106 1
-323.90048 -46.57394 1219.0 176 172 174 1
-313.121 -45.924427 1202.0 130 120 136 1
-303.5398 -45.427742 1189.0 85 73 75 1
-294.34415 -44.96926 1177.0 81 73 66 1
-288.212 -44.96926 1177.0 85 76 70 1
-281.12115 -44.816433 1173.0 83 54 64 1
-273.13425 -44.51078 1165.0 67 47 60 1
-267.98154 -44.66361 1169.0 77 53 48 1
-261.89105 -44.66361 1169.0 63 44 52 1
-254.92531 -44.51078 1165.0 59 39 23 1
-248.00119 -44.357956 1161.0 82 64 52 1
-241.11879 -44.205128 1157.0 69 54 59 1
-235.90356 -44.357956 1161.0 37 19 29 1
-229.85477 -44.357956 1161.0 32 19 16 1
-223.80597 -44.357956 1161.0 42 25 54 1
-217.0069 -44.205128 1157.0 77 65 61 1
-210.24954 -44.0523 1153.0 100 70 47 1
-204.24239 -44.0523 1153.0 77 58 64 1
-197.71948 -43.93768 1150.0 39 17 49 1
-190.39424 -43.632027 1142.0 37 26 49 1
-184.4444 -43.632027 1142.0 42 21 13 1
-178.4946 -43.632027 1142.0 34 30 44 1
-172.54475 -43.632027 1142.0 61 46 49 1
-166.59496 -43.632027 1142.0 74 69 42 1
-160.08246 -43.479202 1138.0 84 68 53 1
-153.61162 -43.326374 1134.0 83 62 57 1
-147.70349 -43.326374 1134.0 83 61 62 1
-141.79533 -43.326374 1134.0 74 55 52 1
-135.52773 -43.211754 1131.0 72 51 56 1
-129.17674 -43.058926 1127.0 63 48 52 1
-123.30505 -43.058926 1127.0 58 45 44 1
-117.8502 -43.211754 1131.0 50 39 46 1
-111.957664 -43.211754 1131.0 43 34 29 1
-105.69005 -43.058926 1127.0 36 19 32 1
-99.46412 -42.9061 1123.0 28 18 26 1
-93.36318 -42.79148 1120.0 29 18 14 1
-87.2154 -42.638653 1116.0 27 21 18 1
-81.69278 -42.79148 1120.0 23 18 6 1
-75.85759 -42.79148 1120.0 21 15 19 1
-70.02241 -42.79148 1120.0 32 10 27 1
-63.957943 -42.638653 1116.0 53 48 53 1
-58.1436 -42.638653 1116.0 44 43 31 1
-52.516777 -42.79148 1120.0 21 13 20 1
-46.514874 -42.638653 1116.0 19 14 5 1
-40.846405 -42.79148 1120.0 21 12 16 1
-35.104965 -42.9061 1123.0 23 14 16 1
-29.25415 -42.9061 1123.0 18 14 12 1
-23.340776 -42.79148 1120.0 28 21 29 1
-17.505592 -42.79148 1120.0 31 20 13 1
-11.701667 -42.9061 1123.0 40 27 11 1
-5.850815 -42.9061 1123.0 49 38 10 1
0.0 -42.9061 1123.0 48 36 23 1
5.850815 -42.9061 1123.0 48 35 37 1
11.6704445 -42.79148 1120.0 54 39 31 1
17.552519 -42.9061 1123.0 58 37 30 1
23.403334 -42.9061 1123.0 55 42 32 1
29.25415 -42.9061 1123.0 54 48 43 1
35.104965 -42.9061 1123.0 63 50 32 1
40.955853 -42.9061 1123.0 69 52 54 1
46.806667 -42.9061 1123.0 72 49 52 1
52.657482 -42.9061 1123.0 74 59 62 1
58.5083 -42.9061 1123.0 77 63 62 1
64.18719 -42.79148 1120.0 74 63 53 1
70.022446 -42.79148 1120.0 71 64 50 1
76.06082 -42.9061 1123.0 88 75 74 1
81.91164 -42.9061 1123.0 99 88 66 1
87.76245 -42.9061 1123.0 98 86 87 1
93.613266 -42.9061 1123.0 64 47 56 1
99.46415 -42.9061 1123.0 76 51 72 1
105.314964 -42.9061 1123.0 83 78 69 1
111.561745 -43.058926 1127.0 63 75 58 1
117.8502 -43.211754 1131.0 94 80 89 1
124.07092 -43.326374 1134.0 108 99 87 1
130.4376 -43.479202 1138.0 113 97 95 1
137.32521 -43.784855 1146.0 118 103 107 1
144.17113 -44.0523 1153.0 125 108 132 1
150.69925 -44.205128 1157.0 132 97 103 1
-326.0175 -48.690968 1219.0 179 168 152 1
-317.30637 -48.33148 1210.0 172 176 151 1
-306.63278 -47.65244 1193.0 79 62 67 1
-297.39548 -47.17312 1181.0 72 69 73 1
-290.256 -47.013344 1177.0 80 68 59 1
-283.15826 -46.853573 1173.0 86 79 73 1
-276.1022 -46.693798 1169.0 68 45 65 1
-269.0878 -46.534023 1165.0 59 49 47 1
-263.92123 -46.693798 1169.0 67 47 44 1
-257.83072 -46.693798 1169.0 45 38 23 1
-250.01747 -46.374252 1161.0 68 58 57 1
-243.96867 -46.374252 1161.0 71 80 50 1
-237.91985 -46.374252 1161.0 29 17 31 1
-231.87105 -46.374252 1161.0 32 22 27 1
-225.04419 -46.214478 1157.0 59 25 76 1
-219.01624 -46.214478 1157.0 75 69 55 1
-212.25194 -46.054703 1153.0 87 68 79 1
-205.70815 -45.934875 1150.0 67 68 31 1
-199.71666 -45.934875 1150.0 41 21 18 1
-193.05132 -45.7751 1146.0 40 25 47 1
-186.42769 -45.615326 1142.0 47 23 30 1
-180.47787 -45.615326 1142.0 59 34 30 1
-174.52803 -45.615326 1142.0 69 55 62 1
-168.57823 -45.615326 1142.0 79 78 45 1
-162.05876 -45.455555 1138.0 83 71 62 1
-155.58101 -45.29578 1134.0 87 67 66 1
-149.67288 -45.29578 1134.0 81 62 78 1
-143.76472 -45.29578 1134.0 76 56 41 1
-137.4919 -45.17595 1131.0 73 53 59 1
-131.13394 -45.01618 1127.0 67 54 57 1
-125.26228 -45.01618 1127.0 62 50 41 1
-119.390625 -45.01618 1127.0 53 42 51 1
-113.518936 -45.01618 1127.0 48 37 45 1
-107.64728 -45.01618 1127.0 41 32 37 1
-101.41436 -44.856403 1123.0 34 24 27 1
-95.30826 -44.736572 1120.0 29 23 11 1
-89.15353 -44.5768 1116.0 26 26 19 1
-83.33914 -44.5768 1116.0 25 22 15 1
-77.802666 -44.736572 1120.0 22 17 18 1
-71.967445 -44.736572 1120.0 31 11 44 1
-65.89607 -44.5768 1116.0 56 50 89 1
-60.081726 -44.5768 1116.0 49 48 45 1
-54.267345 -44.5768 1116.0 28 23 39 1
-48.626667 -44.736572 1120.0 24 14 16 1
-42.791443 -44.736572 1120.0 20 15 10 1
-37.05525 -44.856403 1123.0 24 17 15 1
-31.121073 -44.736572 1120.0 18 16 12 1
-25.28585 -44.736572 1120.0 26 19 15 1
-19.450666 -44.736572 1120.0 33 24 2 1
-13.615444 -44.736572 1120.0 39 30 16 1
-7.780259 -44.736572 1120.0 44 38 1 1
-1.9502841 -44.856403 1123.0 46 39 13 1
3.9005682 -44.856403 1123.0 50 34 28 1
9.725333 -44.736572 1120.0 54 37 26 1
15.560518 -44.736572 1120.0 57 39 25 1
21.395777 -44.736572 1120.0 57 45 23 1
27.303902 -44.856403 1123.0 61 49 38 1
33.154716 -44.856403 1123.0 64 48 27 1
38.901333 -44.736572 1120.0 65 52 76 1
44.73652 -44.736572 1120.0 72 49 38 1
50.707237 -44.856403 1123.0 68 56 74 1
56.558052 -44.856403 1123.0 73 62 60 1
62.242146 -44.736572 1120.0 73 63 53 1
68.07733 -44.736572 1120.0 57 58 57 1
73.91251 -44.736572 1120.0 84 72 72 1
79.96139 -44.856403 1123.0 96 82 76 1
85.8122 -44.856403 1123.0 98 83 79 1
91.418144 -44.736572 1120.0 66 54 62 1
97.253334 -44.736572 1120.0 66 48 58 1
103.36465 -44.856403 1123.0 92 87 78 1
109.21554 -44.856403 1123.0 73 64 3 1
115.06635 -44.856403 1123.0 89 80 84 1
121.77855 -45.17595 1131.0 104 99 83 1
128.0097 -45.29578 1134.0 106 92 86 1
134.3902 -45.455555 1138.0 113 99 95 1
141.30566 -45.7751 1146.0 121 103 116 1
147.79036 -45.934875 1150.0 130 118 110 1
154.71791 -46.214478 1157.0 94 85 110 1
160.74586 -46.214478 1157.0 151 186 216 1
-320.4636 -50.59953 1214.0 172 180 182 1
-309.7397 -49.890972 1197.0 71 41 82 1
-299.4465 -49.22409 1181.0 72 73 73 1
-292.30008 -49.05737 1177.0 74 60 47 1
-285.1954 -48.89065 1173.0 79 67 85 1
-278.13235 -48.72393 1169.0 75 54 57 1
-271.11102 -48.55721 1165.0 53 31 24 1
-265.9514 -48.72393 1169.0 63 46 44 1
-260.75006 -48.89065 1173.0 50 43 45 1
-252.90208 -48.55721 1165.0 60 46 33 1
-245.98491 -48.39049 1161.0 52 46 46 1
-239.93611 -48.39049 1161.0 29 17 41 1
-233.88733 -48.39049 1161.0 26 13 17 1
-227.83849 -48.39049 1161.0 60 38 48 1
-221.02556 -48.22377 1157.0 90 72 56 1
-214.25427 -48.05705 1153.0 87 67 59 1
-207.70532 -47.93201 1150.0 57 18 34 1
-201.71384 -47.93201 1150.0 44 18 39 1
-195.04153 -47.76529 1146.0 29 16 46 1
-188.41096 -47.59857 1142.0 46 28 53 1
-181.82202 -47.43185 1138.0 77 65 41 1
-175.89307 -47.43185 1138.0 91 74 60 1
-169.9641 -47.43185 1138.0 88 77 63 1
-163.45853 -47.26513 1134.0 87 75 58 1
-157.13359 -47.14009 1131.0 87 67 70 1
-151.64223 -47.26513 1134.0 83 63 69 1
-145.73412 -47.26513 1134.0 77 58 63 1
-139.45607 -47.14009 1131.0 74 57 56 1
-133.09117 -46.97337 1127.0 73 55 67 1
-127.21951 -46.97337 1127.0 69 52 54 1
-121.347824 -46.97337 1127.0 57 44 58 1
-115.476166 -46.97337 1127.0 54 41 52 1
-109.604515 -46.97337 1127.0 46 32 49 1
-103.73282 -46.97337 1127.0 38 25 39 1
-97.253334 -46.68161 1120.0 35 26 29 1
-91.09161 -46.51489 1116.0 25 27 17 1
-85.048035 -46.38985 1113.0 23 26 23 1
-79.74774 -46.68161 1120.0 25 19 11 1
-73.91251 -46.68161 1120.0 31 11 44 1
-67.8342 -46.51489 1116.0 76 51 67 1
-62.019817 -46.51489 1116.0 52 51 58 1
-56.20547 -46.51489 1116.0 38 40 39 1
-50.57174 -46.68161 1120.0 21 15 20 1
-44.576744 -46.51489 1116.0 21 16 12 1
-38.901333 -46.68161 1120.0 21 13 12 1
-33.06611 -46.68161 1120.0 14 18 20 1
-27.230925 -46.68161 1120.0 23 15 15 1
-21.39574 -46.68161 1120.0 33 24 15 1
-15.560518 -46.68161 1120.0 39 30 40 1
-9.725333 -46.68161 1120.0 42 37 21 1
-3.900531 -46.806652 1123.0 44 39 31 1
1.9451112 -46.68161 1120.0 50 37 26 1
7.7802963 -46.68161 1120.0 53 36 42 1
13.615481 -46.68161 1120.0 58 39 27 1
19.450666 -46.68161 1120.0 59 42 21 1
25.28585 -46.68161 1120.0 62 51 37 1
31.12111 -46.68161 1120.0 67 47 45 1
36.956295 -46.68161 1120.0 65 52 45 1
42.79148 -46.68161 1120.0 66 47 37 1
48.626667 -46.68161 1120.0 67 52 57 1
54.60773 -46.806652 1123.0 67 56 56 1
60.29711 -46.68161 1120.0 73 62 65 1
66.13229 -46.68161 1120.0 61 54 55 1
71.96748 -46.68161 1120.0 82 70 64 1
78.01106 -46.806652 1123.0 94 79 79 1
83.63785 -46.68161 1120.0 106 81 70 1
89.47311 -46.68161 1120.0 73 55 60 1
95.3083 -46.68161 1120.0 47 48 48 1
101.4144 -46.806652 1123.0 91 81 73 1
107.26521 -46.806652 1123.0 74 62 48 1
113.11603 -46.806652 1123.0 83 76 72 1
119.39066 -46.97337 1127.0 103 88 95 1
125.70691 -47.14009 1131.0 103 89 84 1
131.94847 -47.26513 1134.0 106 91 93 1
138.82913 -47.59857 1142.0 117 98 102 1
145.79315 -47.93201 1150.0 125 111 118 1
152.18066 -48.05705 1153.0 120 110 118 1
158.73657 -48.22377 1157.0 121 149 152 1
-322.57193 -52.707874 1214.0 180 175 174 1
-311.81848 -51.969788 1197.0 115 84 65 1
-302.51862 -51.448788 1185.0 79 72 75 1
-293.34384 -50.927788 1173.0 70 59 62 1
-286.25302 -50.75412 1169.0 76 53 39 1
-279.2039 -50.580456 1165.0 73 57 67 1
-273.13425 -50.580456 1165.0 63 26 22 1
-267.06458 -50.580456 1165.0 50 33 41 1
-261.89105 -50.75412 1169.0 56 47 45 1
-254.92531 -50.580456 1165.0 51 46 33 1
-248.00119 -50.406788 1161.0 55 45 46 1
-241.9524 -50.406788 1161.0 34 17 44 1
-235.90356 -50.406788 1161.0 29 12 21 1
-229.06285 -50.23312 1157.0 59 41 51 1
-222.26381 -50.059452 1153.0 87 62 52 1
-215.69398 -49.929203 1150.0 75 69 52 1
-209.7025 -49.929203 1150.0 59 14 47 1
-203.00241 -49.75554 1146.0 39 19 46 1
-197.03177 -49.75554 1146.0 46 16 46 1
-190.39424 -49.58187 1142.0 66 34 68 1
-183.79836 -49.408203 1138.0 79 63 75 1
-177.8694 -49.408203 1138.0 91 79 59 1
-171.33603 -49.234535 1134.0 90 80 73 1
-166.01143 -49.408203 1138.0 89 76 63 1
-159.51979 -49.234535 1134.0 86 70 68 1
-153.61162 -49.234535 1134.0 84 61 58 1
-147.70349 -49.234535 1134.0 80 58 72 1
-141.42021 -49.104286 1131.0 73 61 62 1
-135.0484 -48.93062 1127.0 69 61 74 1
-128.71826 -48.756954 1123.0 63 56 67 1
-122.86742 -48.756954 1123.0 52 55 61 1
-117.433395 -48.93062 1127.0 47 48 62 1
-111.56171 -48.93062 1127.0 45 42 54 1
-105.69005 -48.93062 1127.0 35 29 53 1
-99.46412 -48.756954 1123.0 32 31 41 1
-93.02975 -48.453037 1116.0 33 22 21 1
-86.66835 -48.14912 1109.0 23 26 26 1
-81.40102 -48.453037 1116.0 24 24 11 1
-75.85759 -48.6267 1120.0 30 16 29 1
-69.77232 -48.453037 1116.0 57 49 54 1
-63.957943 -48.453037 1116.0 53 52 67 1
-58.1436 -48.453037 1116.0 39 41 44 1
-52.329216 -48.453037 1116.0 17 16 26 1
-46.514874 -48.453037 1116.0 22 15 12 1
-40.700527 -48.453037 1116.0 20 13 15 1
-35.011185 -48.6267 1120.0 19 18 32 1
-29.175999 -48.6267 1120.0 23 15 15 1
-23.340776 -48.6267 1120.0 31 19 22 1
-17.505592 -48.6267 1120.0 38 27 42 1
-11.670407 -48.6267 1120.0 40 31 37 1
-5.835185 -48.6267 1120.0 43 37 40 1
0.0 -48.6267 1120.0 48 38 27 1
5.835185 -48.6267 1120.0 52 39 40 1
11.6704445 -48.6267 1120.0 57 44 39 1
17.505629 -48.6267 1120.0 61 45 31 1
23.340815 -48.6267 1120.0 63 53 39 1
29.175999 -48.6267 1120.0 69 53 42 1
35.011185 -48.6267 1120.0 65 52 41 1
40.846443 -48.6267 1120.0 63 50 51 1
46.68163 -48.6267 1120.0 66 47 51 1
52.516815 -48.6267 1120.0 65 58 55 1
58.351997 -48.6267 1120.0 70 60 88 1
64.18719 -48.6267 1120.0 69 60 55 1
70.022446 -48.6267 1120.0 68 61 58 1
76.06082 -48.756954 1123.0 90 69 73 1
81.69281 -48.6267 1120.0 96 79 71 1
87.528 -48.6267 1120.0 76 63 49 1
93.36318 -48.6267 1120.0 46 42 50 1
99.19844 -48.6267 1120.0 90 74 48 1
105.03363 -48.6267 1120.0 78 59 59 1
111.16578 -48.756954 1123.0 77 63 66 1
117.0166 -48.756954 1123.0 101 90 88 1
123.30505 -48.93062 1127.0 100 86 102 1
129.63527 -49.104286 1131.0 97 84 91 1
136.36656 -49.408203 1138.0 111 93 98 1
143.29585 -49.75554 1146.0 120 106 114 1
149.78749 -49.929203 1150.0 132 122 118 1
157.26904 -50.406788 1161.0 118 99 120 1
162.19255 -50.059452 1153.0 149 168 181 1
-315.20847 -54.274315 1202.0 150 136 116 1
-306.63278 -53.867935 1193.0 77 69 87 1
-296.3882 -53.14548 1177.0 69 59 67 1
-288.28317 -52.784252 1169.0 73 54 30 1
-281.2271 -52.60364 1165.0 64 55 69 1
-275.15747 -52.60364 1165.0 72 62 43 1
-269.0878 -52.60364 1165.0 45 18 35 1
-263.92123 -52.784252 1169.0 48 40 56 1
-256.9485 -52.60364 1165.0 51 42 35 1
-250.87886 -52.60364 1165.0 52 41 38 1
-243.96867 -52.423027 1161.0 36 18 36 1
-237.91985 -52.423027 1161.0 37 12 40 1
-231.07217 -52.242413 1157.0 62 54 54 1
-224.26616 -52.061802 1153.0 77 58 48 1
-217.69116 -51.92634 1150.0 72 63 65 1
-211.69968 -51.92634 1150.0 53 16 44 1
-204.99265 -51.745728 1146.0 27 20 44 1
-199.022 -51.745728 1146.0 58 42 56 1
-193.05132 -51.745728 1146.0 89 79 64 1
-186.42769 -51.565113 1142.0 91 76 65 1
-179.84573 -51.3845 1138.0 92 78 70 1
-173.30542 -51.203888 1134.0 94 78 67 1
-167.3973 -51.203888 1134.0 92 78 73 1
-161.48914 -51.203888 1134.0 89 74 69 1
-155.58101 -51.203888 1134.0 83 68 72 1
-149.27693 -51.068428 1131.0 83 59 69 1
-143.3844 -51.068428 1131.0 74 61 60 1
-137.00563 -50.887814 1127.0 66 50 65 1
-130.31944 -50.57174 1120.0 61 42 61 1
-124.817696 -50.7072 1123.0 49 39 44 1
-119.390625 -50.887814 1127.0 41 29 53 1
-113.518936 -50.887814 1127.0 41 22 43 1
-107.64728 -50.887814 1127.0 36 22 47 1
-101.77559 -50.887814 1127.0 24 17 37 1
-94.96787 -50.391125 1116.0 41 26 19 1
-88.913864 -50.255665 1113.0 31 21 30 1
-83.11511 -50.255665 1113.0 31 25 19 1
-77.524796 -50.391125 1116.0 27 18 24 1
-71.71042 -50.391125 1116.0 54 50 63 1
-65.71893 -50.255665 1113.0 55 53 65 1
-59.920216 -50.255665 1113.0 41 42 45 1
-54.121464 -50.255665 1113.0 24 16 26 1
-48.453 -50.391125 1116.0 20 14 15 1
-42.63862 -50.391125 1116.0 20 14 18 1
-36.956257 -50.57174 1120.0 21 15 16 1
-31.009928 -50.391125 1116.0 24 17 10 1
-25.28585 -50.57174 1120.0 30 17 12 1
-19.450666 -50.57174 1120.0 37 21 18 1
-13.615444 -50.57174 1120.0 39 30 43 1
-7.780259 -50.57174 1120.0 42 34 30 1
-1.9450741 -50.57174 1120.0 45 40 35 1
3.8901482 -50.57174 1120.0 52 41 33 1
9.725333 -50.57174 1120.0 59 43 51 1
15.504945 -50.391125 1116.0 61 43 33 1
21.319365 -50.391125 1116.0 64 51 36 1
27.230963 -50.57174 1120.0 67 54 28 1
33.066147 -50.57174 1120.0 68 54 42 1
38.901333 -50.57174 1120.0 63 50 52 1
44.73652 -50.57174 1120.0 65 46 47 1
50.571777 -50.57174 1120.0 64 54 50 1
56.406963 -50.57174 1120.0 69 56 62 1
62.242146 -50.57174 1120.0 68 60 43 1
68.07733 -50.57174 1120.0 62 43 47 1
73.91251 -50.57174 1120.0 85 69 64 1
79.74778 -50.57174 1120.0 93 79 70 1
85.277306 -50.391125 1116.0 76 52 62 1
91.09165 -50.391125 1116.0 34 40 44 1
97.253334 -50.57174 1120.0 70 78 43 1
103.08852 -50.57174 1120.0 81 69 52 1
108.923775 -50.57174 1120.0 70 57 63 1
115.06635 -50.7072 1123.0 96 88 71 1
120.91717 -50.7072 1123.0 104 88 91 1
127.67105 -51.068428 1131.0 86 80 81 1
133.91782 -51.203888 1134.0 103 89 92 1
140.31923 -51.3845 1138.0 113 101 104 1
147.2763 -51.745728 1146.0 125 112 118 1
154.18301 -52.061802 1153.0 125 114 120 1
160.74586 -52.242413 1157.0 119 113 151 1
-318.3518 -56.549374 1206.0 163 175 151 1
-308.70465 -55.939804 1193.0 76 64 82 1
-299.4465 -55.377125 1181.0 74 57 72 1
-290.31332 -54.814445 1169.0 73 58 63 1
-283.25034 -54.626884 1165.0 76 54 72 1
-277.18066 -54.626884 1165.0 76 56 53 1
-271.11102 -54.626884 1165.0 64 36 53 1
-265.04138 -54.626884 1165.0 30 30 56 1
-259.8609 -54.814445 1169.0 50 41 34 1
-252.90208 -54.626884 1165.0 60 51 31 1
-245.98491 -54.439323 1161.0 35 24 23 1
-239.93611 -54.439323 1161.0 37 9 38 1
-233.08151 -54.251762 1157.0 62 41 59 1
-226.26854 -54.064205 1153.0 70 56 78 1
-219.68832 -53.923534 1150.0 64 60 91 1
-212.9535 -53.735973 1146.0 40 16 48 1
-206.98286 -53.735973 1146.0 46 22 20 1
-200.31061 -53.548412 1142.0 68 44 63 1
-194.36076 -53.548412 1142.0 85 77 83 1
-188.41096 -53.548412 1142.0 93 78 61 1
-181.18294 -53.173294 1134.0 94 80 74 1
-175.27481 -53.173294 1134.0 94 79 69 1
-169.36668 -53.173294 1134.0 91 77 77 1
-163.45853 -53.173294 1134.0 91 75 74 1
-157.5504 -53.173294 1134.0 80 69 76 1
-151.24106 -53.032623 1131.0 67 61 72 1
-145.34857 -53.032623 1131.0 68 44 63 1
-139.45607 -53.032623 1131.0 87 40 50 1
-132.26451 -52.516834 1120.0 99 36 62 1
-126.76798 -52.6575 1123.0 105 46 37 1
-120.59411 -52.516834 1120.0 97 36 45 1
-114.75893 -52.516834 1120.0 92 39 40 1
-109.604515 -52.845062 1127.0 81 22 43 1
-103.73282 -52.845062 1127.0 60 15 32 1
-97.253334 -52.516834 1120.0 54 24 14 1
-90.84675 -52.188602 1113.0 42 24 19 1
-84.74238 -52.00104 1109.0 27 27 22 1
-79.46293 -52.329273 1116.0 28 26 31 1
-73.648544 -52.329273 1116.0 50 54 87 1
-67.8342 -52.329273 1116.0 58 56 58 1
-61.853096 -52.188602 1113.0 41 44 39 1
-56.054382 -52.188602 1113.0 25 17 25 1
-50.255665 -52.188602 1113.0 21 12 10 1
-44.576744 -52.329273 1116.0 22 14 21 1
-38.901333 -52.516834 1120.0 22 11 17 1
-32.948017 -52.329273 1116.0 23 13 4 1
-27.133673 -52.329273 1116.0 29 17 1 1
-21.319326 -52.329273 1116.0 38 24 14 1
-15.504945 -52.329273 1116.0 39 27 34 1
-9.690599 -52.329273 1116.0 44 30 34 1
-3.8762178 -52.329273 1116.0 46 41 36 1
1.9381644 -52.329273 1116.0 53 42 31 1
7.7802963 -52.516834 1120.0 55 44 53 1
13.5668545 -52.329273 1116.0 60 45 51 1
19.381199 -52.329273 1116.0 65 51 34 1
25.195545 -52.329273 1116.0 69 53 31 1
31.12111 -52.516834 1120.0 70 54 41 1
36.956295 -52.516834 1120.0 69 53 46 1
42.79148 -52.516834 1120.0 64 46 58 1
48.626667 -52.516834 1120.0 64 50 39 1
54.46185 -52.516834 1120.0 70 54 50 1
60.29711 -52.516834 1120.0 67 56 44 1
66.13229 -52.516834 1120.0 63 44 33 1
71.96748 -52.516834 1120.0 81 67 51 1
77.802666 -52.516834 1120.0 92 79 82 1
83.33914 -52.329273 1116.0 77 76 58 1
89.153564 -52.329273 1116.0 48 32 34 1
94.96791 -52.329273 1116.0 55 45 50 1
101.14348 -52.516834 1120.0 85 65 44 1
106.97867 -52.516834 1120.0 53 44 55 1
112.81385 -52.516834 1120.0 92 90 62 1
118.96692 -52.6575 1123.0 104 90 66 1
125.26232 -52.845062 1127.0 85 78 68 1
131.5994 -53.032623 1131.0 95 85 83 1
137.8566 -53.173294 1134.0 109 97 93 1
144.27184 -53.36085 1138.0 118 104 112 1
151.78471 -53.923534 1150.0 126 118 122 1
158.73657 -54.251762 1157.0 128 110 127 1
-321.50906 -58.83827 1210.0 184 178 158 1
-311.81848 -58.206123 1197.0 108 67 64 1
-301.49747 -57.428097 1181.0 77 57 82 1
-293.34384 -57.03908 1173.0 72 55 67 1
-285.27356 -56.65007 1165.0 78 54 70 1
-279.2039 -56.65007 1165.0 83 61 57 1
-273.13425 -56.65007 1165.0 86 57 61 1
-267.06458 -56.65007 1165.0 37 14 46 1
-260.99493 -56.65007 1165.0 42 37 39 1
-254.92531 -56.65007 1165.0 59 44 42 1
-248.00119 -56.455563 1161.0 37 25 17 1
-241.9524 -56.455563 1161.0 32 10 35 1
-235.0908 -56.261055 1157.0 78 44 56 1
-228.27094 -56.06655 1153.0 65 49 72 1
-221.6855 -55.92067 1150.0 59 37 50 1
-214.94374 -55.726162 1146.0 34 11 27 1
-208.9731 -55.726162 1146.0 41 20 46 1
-202.29385 -55.531654 1142.0 81 79 54 1
-196.34406 -55.531654 1142.0 90 77 74 1
-189.72737 -55.33715 1138.0 93 78 71 1
-183.15233 -55.142643 1134.0 99 80 75 1
-177.2442 -55.142643 1134.0 93 83 76 1
-170.88277 -54.99676 1131.0 91 75 76 1
-165.4279 -55.142643 1134.0 91 70 69 1
-159.09778 -54.99676 1131.0 84 64 64 1
-153.20525 -54.99676 1131.0 59 46 72 1
-147.31274 -54.99676 1131.0 45 12 94 1
-140.92006 -54.802258 1127.0 88 7 71 1
-134.56908 -54.60775 1123.0 131 106 110 1
-128.71826 -54.60775 1123.0 150 123 100 1
-122.86742 -54.60775 1123.0 154 133 101 1
-116.703995 -54.46187 1120.0 148 138 102 1
-110.868774 -54.46187 1120.0 133 108 90 1
-105.69005 -54.802258 1127.0 105 91 83 1
-99.46412 -54.60775 1123.0 86 76 65 1
-92.77966 -54.121483 1113.0 56 63 46 1
-86.66835 -53.926975 1109.0 26 32 28 1
-81.1822 -54.121483 1113.0 34 16 40 1
-75.58667 -54.267365 1116.0 52 44 65 1
-69.77232 -54.267365 1116.0 58 59 63 1
-63.786015 -54.121483 1113.0 42 46 49 1
-57.7789 -53.926975 1109.0 26 16 19 1
-52.188545 -54.121483 1113.0 25 10 16 1
-46.514874 -54.267365 1116.0 22 14 30 1
-40.700527 -54.267365 1116.0 27 17 15 1
-34.886143 -54.267365 1116.0 21 16 11 1
-29.0718 -54.267365 1116.0 26 18 13 1
-23.257418 -54.267365 1116.0 37 22 13 1
-17.505592 -54.46187 1120.0 39 25 22 1
-11.628727 -54.267365 1116.0 44 30 35 1
-5.814345 -54.267365 1116.0 49 37 32 1
0.0 -54.267365 1116.0 52 39 39 1
5.814345 -54.267365 1116.0 55 45 41 1
11.628764 -54.267365 1116.0 58 45 57 1
17.44311 -54.267365 1116.0 65 51 41 1
23.194935 -54.121483 1113.0 70 51 43 1
29.0718 -54.267365 1116.0 74 56 38 1
34.886143 -54.267365 1116.0 73 56 43 1
40.846443 -54.46187 1120.0 68 49 58 1
46.514908 -54.267365 1116.0 64 50 39 1
52.516815 -54.46187 1120.0 67 49 54 1
58.1436 -54.267365 1116.0 72 51 54 1
63.957943 -54.267365 1116.0 64 49 24 1
70.022446 -54.46187 1120.0 72 69 47 1
75.85763 -54.46187 1120.0 99 75 65 1
81.69281 -54.46187 1120.0 77 70 48 1
87.2154 -54.267365 1116.0 47 28 41 1
93.02975 -54.267365 1116.0 55 37 53 1
99.19844 -54.46187 1120.0 99 81 58 1
105.03363 -54.46187 1120.0 55 42 27 1
110.86881 -54.46187 1120.0 95 70 68 1
116.703995 -54.46187 1120.0 97 89 63 1
122.86742 -54.60775 1123.0 79 64 70 1
129.17679 -54.802258 1127.0 87 80 80 1
135.88725 -55.142643 1134.0 103 93 90 1
141.79538 -55.142643 1134.0 112 98 103 1
148.7455 -55.531654 1142.0 122 111 114 1
155.77898 -55.92067 1150.0 131 127 122 1
-315.20847 -60.53676 1202.0 118 84 100 1
-304.57657 -59.68058 1185.0 77 64 89 1
-296.3882 -59.27767 1177.0 70 50 71 1
-287.29675 -58.673313 1165.0 71 53 66 1
-281.2271 -58.673313 1165.0 76 71 70 1
-275.15747 -58.673313 1165.0 69 53 59 1
-269.0878 -58.673313 1165.0 59 54 69 1
-263.01816 -58.673313 1165.0 38 25 34 1
-256.9485 -58.673313 1165.0 49 41 39 1
-250.87886 -58.673313 1165.0 43 29 8 1
-243.96867 -58.47186 1161.0 25 13 22 1
-237.10013 -58.270405 1157.0 55 41 71 1
-230.27332 -58.068954 1153.0 60 40 46 1
-223.68263 -57.917862 1150.0 53 32 25 1
-216.93398 -57.716408 1146.0 48 11 14 1
-210.96332 -57.716408 1146.0 53 24 64 1
-204.27713 -57.514957 1142.0 80 78 52 1
-198.32733 -57.514957 1142.0 93 75 69 1
-192.37749 -57.514957 1142.0 92 76 80 1
-185.1217 -57.11205 1134.0 94 74 78 1
-179.21358 -57.11205 1134.0 94 78 87 1
-172.84694 -56.96096 1131.0 86 75 81 1
-166.95445 -56.96096 1131.0 80 73 73 1
-161.06192 -56.96096 1131.0 79 42 56 1
-155.16942 -56.96096 1131.0 114 38 56 1
-149.27693 -56.96096 1131.0 129 80 98 1
-142.87729 -56.759506 1127.0 145 158 125 1
-136.51936 -56.558052 1123.0 157 196 153 1
-130.31944 -56.406963 1120.0 160 190 164 1
-124.48426 -56.406963 1120.0 155 192 169 1
-118.64907 -56.406963 1120.0 147 179 161 1
-112.41094 -56.20551 1116.0 138 170 141 1
-107.64728 -56.759506 1127.0 123 151 135 1
-101.41436 -56.558052 1123.0 107 113 111 1
-94.96787 -56.20551 1116.0 89 88 98 1
-88.59432 -55.852966 1109.0 70 61 7 1
-82.81641 -55.852966 1109.0 30 18 56 1
